#!ascii version in FreeSurfer format (SUMA)
642 1280
-29.506256  -6.942889  -24.911718  0
-40.834648  11.875986  55.547585  0
-26.593029  -36.770325  58.856812  0
-27.022591  -74.066849  -11.508257  0
-38.750992  20.330288  7.398067  0
-47.560131  -70.679375  30.495625  0
-5.566857  58.128914  0.927545  0
-14.950794  -71.157249  32.594692  0
-5.490301  -8.682511  48.797752  0
-50.289356  -23.585501  -8.661379  0
-59.963257  -25.012817  28.203064  0
-6.749065  -30.630833  9.450025  0
-28.033539  -2.123234  -21.563126  0
-31.187502  3.509129  -19.467588  0
-35.971668  13.657209  -15.290393  0
-34.119560  20.397581  -7.673104  0
-31.296886  24.628744  0.325649  0
-30.145033  25.697578  5.995276  0
-33.047592  22.859835  8.628404  0
-8.893835  68.838867  -4.261620  0
-19.612547  58.273788  -5.626975  0
-29.054966  53.649361  -3.517617  0
-41.024353  51.990955  -2.533235  0
-44.134834  38.717281  -3.239003  0
-51.772179  30.005667  -3.109361  0
-43.060799  25.266094  3.698035  0
-24.387531  -5.923170  -20.489174  0
-20.901363  2.553159  -15.732782  0
-13.363029  16.564400  -20.629333  0
-13.087300  29.962038  -21.695301  0
-7.941922  42.096226  -24.004715  0
-1.515288  52.121201  -22.270111  0
-4.470765  56.435265  -7.584439  0
-26.694393  2.791013  -14.073042  0
-20.119684  11.819943  -24.998158  0
-21.323036  25.570974  -21.972662  0
-17.062046  38.122940  -23.956728  0
-13.529118  51.718140  -23.347446  0
-7.490753  62.963940  -15.924574  0
-27.666546  12.917559  -19.607098  0
-29.400736  22.414513  -25.041119  0
-23.781219  32.962788  -12.214710  0
-24.195461  44.514160  -13.852217  0
-22.636660  60.921711  -14.998915  0
-29.190300  20.224216  -12.668169  0
-39.687759  26.303818  -18.954716  0
-33.443623  36.998352  -10.503408  0
-34.753365  52.965168  -14.104685  0
-32.538673  25.686483  -6.932459  0
-47.669926  29.964951  -15.773428  0
-45.415745  44.747826  -14.204754  0
-34.332333  30.409336  -0.800654  0
-48.551476  32.535793  -8.251410  0
-36.764805  28.271812  1.512452  0
-22.751303  4.763706  -29.879969  0
-26.280193  14.893484  -40.593494  0
-40.590675  10.866712  -40.520210  0
-52.228840  5.768497  -34.844826  0
-58.006012  -0.699783  -23.717941  0
-52.332802  -11.430051  -18.590382  0
-51.427261  -18.188301  -13.372949  0
-33.751480  13.243742  10.261194  0
-34.680645  1.572242  11.738402  0
-41.873940  -13.418583  7.726249  0
-38.879326  -23.800184  -1.579771  0
-47.694706  -14.139016  3.577466  0
-63.641941  -10.959805  1.945004  0
-57.941299  -17.350056  -6.479058  0
-31.584963  6.088588  -26.082268  0
-38.102306  1.937991  -20.129734  0
-40.839188  1.920578  -10.654860  0
-39.712048  7.919066  -1.587626  0
-33.437351  12.464934  5.388625  0
-31.573229  14.401651  10.104692  0
-36.096931  15.127001  -28.870638  0
-42.601181  1.062000  -20.614777  0
-40.547661  -8.429144  -11.186688  0
-40.774208  -6.914722  -2.890828  0
-39.875671  -1.526850  8.014631  0
-46.887272  17.559368  -25.981476  0
-47.072075  2.892291  -14.633732  0
-42.382629  -13.668496  -10.690468  0
-38.469994  -17.010054  -3.190528  0
-54.433105  6.877108  -20.872272  0
-53.449905  3.832755  -5.510487  0
-45.916367  -15.838383  -4.658246  0
-54.224258  -4.409913  -16.927244  0
-61.273888  -2.571656  -0.861302  0
-55.257324  -11.589907  -11.157161  0
-21.949438  -5.404365  -28.058537  0
-20.455156  -8.001028  -36.687778  0
-30.577988  -16.112106  -33.413517  0
-35.112053  -24.750990  -25.246065  0
-28.608608  -34.241776  -26.175829  0
-25.031677  -50.477917  -18.666220  0
-27.427162  -64.727112  -14.835859  0
-53.786610  -26.108736  -10.499767  0
-67.897507  -29.119921  -11.741146  0
-58.806564  -37.012146  -18.548529  0
-58.032478  -46.706665  -23.403389  0
-46.032928  -48.775360  -15.665402  0
-44.686127  -55.894722  -18.472828  0
-37.876106  -66.235229  -19.971155  0
-24.804039  0.403644  -43.105652  0
-34.901134  2.792537  -43.885742  0
-44.575546  -1.168059  -38.820976  0
-52.241524  -8.545798  -30.847055  0
-63.815422  -10.618165  -20.990919  0
-61.421459  -18.846333  -12.677236  0
-31.846338  -7.006002  -37.384300  0
-38.797676  -10.181105  -41.792271  0
-53.364353  -13.382586  -39.356487  0
-55.843853  -20.223648  -27.425219  0
-62.247192  -23.825497  -20.193073  0
-38.226433  -13.387653  -29.698742  0
-42.799053  -19.923840  -30.244116  0
-54.952946  -28.694284  -33.493530  0
-54.792683  -32.459106  -22.656261  0
-40.889305  -27.256008  -23.679968  0
-45.044781  -33.355743  -25.762566  0
-50.941284  -43.098076  -28.886007  0
-38.950737  -40.900841  -26.893806  0
-43.300163  -43.541157  -18.888412  0
-37.805984  -53.350254  -22.837267  0
-35.324692  -10.768797  -23.323954  0
-35.616928  -16.489843  -18.541561  0
-33.320148  -22.000057  -13.911877  0
-26.558947  -26.046482  -11.097697  0
-20.150658  -28.895267  -8.039199  0
-13.654594  -31.336494  -5.025447  0
-8.535166  -32.057270  0.953258  0
-25.815701  -71.587967  -6.097773  0
-22.029604  -64.190292  -13.506859  0
-18.070206  -62.671684  -7.265916  0
-11.924164  -53.126732  -7.183287  0
-14.436155  -45.518333  -5.510680  0
-13.503325  -39.262230  0.658309  0
-11.850963  -36.562477  4.657214  0
-28.337101  -12.466948  -23.758339  0
-16.995005  -14.107298  -24.779594  0
-26.718878  -25.788504  -30.146339  0
-34.335369  -32.225349  -18.296247  0
-29.820427  -45.219730  -13.002800  0
-29.727991  -60.460361  -9.266745  0
-33.819588  -20.362659  -19.267525  0
-25.237329  -21.761553  -18.332581  0
-23.121826  -32.659660  -22.921555  0
-32.849056  -41.887939  -10.654903  0
-28.087637  -53.069557  -8.076287  0
-38.722828  -29.077496  -13.662560  0
-30.369387  -31.148867  -12.397319  0
-18.137094  -35.839188  -16.443775  0
-24.478151  -49.160030  -7.591537  0
-35.166542  -34.696072  -7.074473  0
-28.475115  -36.962944  -7.149251  0
-13.410275  -39.074188  -10.998173  0
-28.491564  -36.555286  -0.553987  0
-22.016985  -39.088287  -2.079761  0
-20.430332  -37.143822  2.034643  0
-3.352508  -22.905727  6.852340  0
-1.683975  -11.118367  5.119703  0
-0.110921  -0.155063  4.211525  0
0.614715  17.970787  2.213800  0
-2.283137  32.293911  -2.196102  0
-5.242122  44.580872  -3.393004  0
-11.697491  47.887333  -0.269696  0
-24.450054  -9.000429  -13.795163  0
-21.714178  -12.443199  -11.636526  0
-16.154947  -16.598358  -16.522198  0
-10.003462  -22.742054  -18.438992  0
-6.426794  -25.379654  -10.417023  0
-3.955856  -23.963560  -1.094635  0
-15.821155  0.449451  -12.716185  0
-11.148741  -2.600484  -14.496145  0
-5.147774  -7.183760  -13.562477  0
-0.753311  -14.110323  -10.765938  0
-2.407886  -12.526784  -3.397957  0
-10.854923  17.818722  -17.287537  0
-3.463343  14.421030  -18.471329  0
-2.541058  7.582041  -8.367631  0
-0.706488  3.822843  -2.445118  0
-4.149324  28.044184  -28.174145  0
-5.541607  27.001175  -14.610883  0
-2.396267  21.500656  -5.393996  0
-3.374249  40.203552  -18.220757  0
-5.143731  35.903316  -11.225636  0
-8.631329  45.170326  -8.647033  0
-34.931545  21.494316  52.355080  0
-29.072880  24.477276  40.880493  0
-24.958542  33.701111  37.216415  0
-27.174133  41.990364  31.786100  0
-22.878906  54.718319  26.846455  0
-16.329153  61.281628  15.482905  0
-7.034919  67.817833  8.918445  0
-44.513264  18.677963  46.208004  0
-44.542633  18.312651  37.047504  0
-40.333973  19.029737  29.605244  0
-37.854610  21.257137  23.361216  0
-46.770081  21.440157  21.373133  0
-56.922356  22.788490  13.971056  0
-47.822529  19.970566  5.344170  0
-38.620735  26.138607  43.012386  0
-45.810642  28.319817  36.135838  0
-46.100704  29.007330  26.552326  0
-42.331223  28.437931  19.832672  0
-46.378807  28.272968  12.854153  0
-55.124550  27.939545  4.597294  0
-32.542187  33.268661  39.939861  0
-39.730469  35.974190  32.402248  0
-43.899231  37.118423  20.214764  0
-35.927055  34.787045  11.621147  0
-46.941143  36.336067  5.657512  0
-28.356510  34.323486  26.727354  0
-35.043282  43.824345  23.005035  0
-39.654850  45.444382  14.216639  0
-41.114594  43.742035  3.775302  0
-24.976078  43.696873  20.020750  0
-29.774696  47.255875  13.410881  0
-33.436623  52.839554  6.338170  0
-26.366278  55.988064  13.804539  0
-25.345150  52.207314  2.714923  0
-20.445839  64.796272  4.530427  0
-32.639935  8.048051  58.792900  0
-25.280872  8.730610  52.891899  0
-20.917925  9.843942  52.091461  0
-22.554914  11.341330  62.515202  0
-12.969172  8.533458  66.028839  0
-3.442342  1.175726  66.386597  0
-2.895082  -4.171227  55.521957  0
-8.683290  54.089035  7.423265  0
-6.799887  48.004547  15.541715  0
-7.557598  40.122635  22.834980  0
-5.245743  30.488293  32.454147  0
-7.735452  19.123968  39.484142  0
-7.028911  10.671723  44.576084  0
-7.221453  0.588839  48.805763  0
-29.766979  14.288570  46.325012  0
-24.040817  22.220226  37.696323  0
-20.208843  35.252800  36.074013  0
-20.199871  50.353100  36.311401  0
-12.870060  59.832851  27.224297  0
-4.288322  62.417736  17.223860  0
-25.821201  15.158968  45.923298  0
-22.074585  27.279091  45.804352  0
-18.166626  42.321930  44.838116  0
-7.734805  54.058998  40.423130  0
-4.279037  53.063877  26.649012  0
-24.328606  20.732010  57.837257  0
-15.138724  30.177694  51.735535  0
-6.064799  42.398647  51.197590  0
-5.358088  41.656090  34.073765  0
-14.106049  19.720539  60.664482  0
-3.924855  28.012400  58.213444  0
-4.279766  29.111683  43.028042  0
-4.303831  15.681615  65.427704  0
-6.374842  16.378977  49.859104  0
-6.324772  6.006794  55.320122  0
-37.738621  0.501722  53.933540  0
-34.733864  -5.234029  45.169548  0
-36.362679  -6.965790  57.433632  0
-38.834229  -19.020035  66.907623  0
-28.518982  -26.194405  53.204865  0
-27.488276  -29.045937  56.022308  0
-30.818974  -30.845860  70.993538  0
-1.594718  -16.443001  51.922756  0
-5.961449  -21.881649  59.659645  0
-3.650526  -25.091146  64.776794  0
-2.382420  -33.344402  71.192566  0
-8.844778  -37.170097  68.096237  0
-17.175325  -30.463131  74.210831  0
-24.129566  -35.259468  69.391953  0
-28.342440  -1.451953  49.418762  0
-23.191141  -0.137901  50.007984  0
-21.177794  0.012607  58.030697  0
-19.917572  0.401988  71.161415  0
-9.776920  -3.841612  67.400345  0
-6.821964  -10.736714  58.971718  0
-27.324326  -8.602521  47.548264  0
-23.585381  -9.491400  54.337849  0
-19.141895  -11.026921  62.019188  0
-13.855061  -11.426309  71.014046  0
-3.744756  -13.922915  67.308754  0
-30.936489  -10.597032  60.616722  0
-23.866182  -14.847766  65.867950  0
-16.209372  -17.588375  69.810783  0
-6.995091  -19.767784  76.340973  0
-29.977072  -23.904331  67.305199  0
-20.777954  -25.547443  67.785614  0
-12.901056  -29.320049  70.621246  0
-21.441124  -28.133381  55.062210  0
-14.512287  -32.667870  59.731018  0
-22.342838  -30.314648  64.133255  0
-41.701176  7.809889  47.717857  0
-42.119774  3.675727  41.135963  0
-55.540260  -0.825088  41.754669  0
-53.027275  -7.691262  32.802078  0
-48.768192  -10.853792  26.422594  0
-61.223961  -8.432934  34.409115  0
-58.689705  -18.939510  30.004725  0
-32.694565  -36.896858  60.531281  0
-40.118538  -35.889217  58.443932  0
-45.829964  -33.691414  52.717651  0
-47.013538  -29.759951  46.552185  0
-47.712753  -27.606632  39.676987  0
-50.777550  -25.211906  34.704193  0
-56.198792  -24.242336  32.585499  0
-44.196350  0.361806  49.418644  0
-44.009708  -5.826315  51.046978  0
-40.302391  -13.967724  55.514450  0
-36.866230  -25.610104  49.844006  0
-34.017296  -29.047573  53.556290  0
-37.543736  -30.250282  68.489258  0
-52.233257  -3.142840  50.480820  0
-41.458187  -14.668866  45.891701  0
-33.292881  -19.712090  44.002472  0
-40.318287  -24.894537  50.685081  0
-44.260818  -26.716471  64.616150  0
-48.005066  -11.876474  39.394302  0
-37.562302  -18.914177  36.357571  0
-41.596062  -19.332140  46.024704  0
-50.034657  -20.359493  59.854301  0
-42.946945  -13.703521  30.953506  0
-48.066780  -19.510967  40.938141  0
-56.096306  -19.394861  52.420486  0
-54.364243  -13.579908  38.484779  0
-57.677334  -21.407915  43.410782  0
-57.555164  -19.464855  35.891354  0
-60.715260  -23.002701  23.019367  0
-58.425835  -19.569452  18.814789  0
-56.688328  -15.495532  11.750657  0
-50.982449  -9.181829  6.634888  0
-47.369331  -0.892759  4.284163  0
-43.038746  5.735538  3.360853  0
-38.473839  13.652573  3.841112  0
-40.699810  9.162839  38.625912  0
-40.511108  0.312190  34.500450  0
-53.140343  3.015769  35.339737  0
-55.961269  -5.035471  25.983437  0
-57.878887  -9.464991  23.036995  0
-64.925430  -14.229120  26.336758  0
-36.159397  8.915189  31.608746  0
-39.841072  2.546186  29.093744  0
-55.690792  8.957380  26.681999  0
-58.314415  -3.564475  18.576826  0
-66.376083  -11.952085  15.068661  0
-35.681435  10.909491  26.693819  0
-44.411575  4.807029  21.486477  0
-58.716011  7.880579  15.303250  0
-61.272640  -4.628300  7.312472  0
-43.514740  11.286577  25.609798  0
-49.346634  6.788854  13.043298  0
-59.497337  3.402888  3.205510  0
-55.632706  13.842979  18.198011  0
-52.823441  10.131676  -1.205296  0
-50.121307  16.307056  5.225264  0
-22.969145  -40.758667  56.873093  0
-24.242235  -48.000843  60.348213  0
-21.246531  -54.829857  64.402084  0
-15.846010  -62.390999  64.716339  0
-8.462749  -70.634560  58.011200  0
-6.066168  -74.746780  47.725105  0
-10.340866  -74.360321  39.268509  0
-9.211780  -17.374687  44.855530  0
-14.749430  -25.928930  41.610287  0
-16.881592  -36.005062  41.368198  0
-4.854527  -42.079357  45.530701  0
-9.109522  -51.471542  40.318344  0
-5.073596  -59.542603  38.656273  0
-3.955126  -72.007271  34.429104  0
-20.757259  -39.708782  64.319565  0
-15.598970  -38.357445  77.120193  0
-6.069514  -43.646133  72.365982  0
-2.621005  -39.237629  59.992508  0
-2.436903  -30.518333  53.921001  0
-7.302372  -24.290375  49.012901  0
-20.324474  -48.479027  64.362030  0
-14.295403  -48.278851  74.863663  0
-14.560422  -43.296593  64.428886  0
-12.967196  -40.679047  54.242493  0
-13.497560  -33.764175  46.789650  0
-15.499076  -55.052956  63.620750  0
-5.157652  -53.662064  65.983765  0
-10.545238  -46.459602  56.537521  0
-15.862151  -42.975601  48.980797  0
-11.198590  -58.430813  58.971161  0
-5.028796  -54.816120  54.096512  0
-5.846872  -48.854160  48.210358  0
-7.415288  -62.006054  51.557816  0
-9.039540  -56.491188  45.473812  0
-3.607220  -66.462029  43.815701  0
-27.258192  -40.067268  53.000473  0
-37.271858  -44.730480  57.416527  0
-32.689362  -50.514526  45.872349  0
-30.019627  -52.097504  37.546982  0
-35.358566  -60.196262  40.593063  0
-37.545395  -70.857048  49.412125  0
-40.380684  -72.875549  37.147476  0
-16.545967  -80.285294  34.314606  0
-16.800121  -88.821625  37.369919  0
-22.887730  -87.524185  25.041653  0
-25.257078  -79.539856  17.358030  0
-31.291412  -78.829544  17.606129  0
-35.698441  -85.352348  28.322319  0
-42.123684  -77.067505  30.594681  0
-30.143003  -45.232033  60.807465  0
-31.556870  -55.563541  65.811157  0
-23.596987  -63.576759  60.401417  0
-16.592678  -68.210823  52.814808  0
-15.008442  -75.187958  48.476429  0
-16.337761  -78.939102  42.843719  0
-37.743546  -53.959522  58.159363  0
-27.498053  -58.430637  54.058296  0
-24.538286  -65.223206  50.888756  0
-19.407637  -67.810806  41.238335  0
-22.566856  -79.847473  39.731361  0
-28.335634  -54.173187  46.088154  0
-28.305283  -61.852020  46.084492  0
-22.710781  -62.777039  36.618439  0
-25.335346  -71.447861  28.263124  0
-30.741657  -58.993568  40.548946  0
-26.783930  -67.136795  37.780342  0
-28.051678  -69.529411  24.881985  0
-30.296301  -69.921783  45.856159  0
-29.836937  -76.159874  30.847446  0
-33.732101  -80.989120  39.387074  0
-41.422062  -65.906059  30.893358  0
-46.023251  -63.974972  32.750866  0
-51.544044  -57.157925  33.112671  0
-52.076744  -50.585915  35.905960  0
-58.621529  -44.561935  40.585995  0
-61.322117  -36.269760  38.060711  0
-64.437531  -29.114117  32.344528  0
-32.916245  -39.292980  53.951775  0
-36.021126  -43.182148  48.852329  0
-32.795475  -46.831440  38.266754  0
-37.259804  -52.669262  35.649170  0
-42.134075  -61.574242  46.921707  0
-42.910450  -67.887466  40.595013  0
-35.623009  -37.293594  47.929001  0
-33.392776  -40.346439  41.702988  0
-38.142006  -45.700935  36.740837  0
-43.838169  -54.508369  41.029549  0
-51.394119  -61.454254  42.205223  0
-36.570862  -33.447632  40.975403  0
-38.023415  -38.785782  39.692780  0
-44.451363  -46.324299  42.272846  0
-52.537086  -53.742165  45.044724  0
-41.046555  -30.656258  37.423599  0
-44.819458  -38.415009  44.050247  0
-52.680183  -46.117680  48.859093  0
-47.401703  -30.534815  36.225323  0
-55.148758  -34.814762  46.056419  0
-56.889275  -28.653778  38.247986  0
-65.317329  -30.026669  21.157938  0
-52.508816  -34.182720  22.354115  0
-44.241573  -38.292732  21.456879  0
-47.676094  -37.373558  13.265820  0
-57.858765  -30.077263  8.958879  0
-68.736038  -25.686958  2.266612  0
-56.409447  -24.834469  -5.486352  0
-36.599541  4.451097  10.703672  0
-40.671333  -3.491096  14.357958  0
-42.142952  -12.066919  13.648651  0
-44.640366  -16.463657  13.282073  0
-49.488220  -22.094955  18.876429  0
-56.524517  -25.965414  15.319366  0
-36.473751  -8.105072  13.374423  0
-36.580368  -15.789017  17.405582  0
-36.173809  -23.476318  17.156879  0
-40.443016  -28.081886  19.846359  0
-46.531902  -32.239811  14.321161  0
-35.250397  -22.344515  7.473224  0
-33.161400  -27.222977  12.230938  0
-35.895523  -32.454723  16.506283  0
-40.112148  -36.690063  15.007380  0
-39.042561  -22.626009  5.382967  0
-45.709179  -29.110952  8.609159  0
-43.821285  -32.969002  6.988786  0
-54.799179  -19.703827  4.623008  0
-55.424683  -23.786480  3.164503  0
-66.575310  -17.126436  0.316728  0
-44.106270  -64.952820  23.063187  0
-41.851658  -61.729904  17.070538  0
-46.435131  -58.730408  13.262144  0
-51.273758  -53.736794  7.329584  0
-53.653328  -45.449615  1.875444  0
-49.608238  -38.331512  -3.195689  0
-48.784389  -30.782970  -6.307641  0
-39.246552  -60.758186  25.593748  0
-39.617680  -55.884060  17.843235  0
-44.463154  -51.787766  12.351183  0
-50.675308  -47.083054  6.666431  0
-51.960304  -39.196999  1.820021  0
-53.835140  -32.945862  -3.158240  0
-45.202400  -59.244576  24.832060  0
-47.596901  -54.405434  19.530001  0
-53.889347  -50.452263  11.817713  0
-61.723263  -43.061546  6.419655  0
-66.597183  -34.037193  3.248672  0
-52.121689  -54.782730  27.043480  0
-59.420784  -54.336693  20.025412  0
-64.759750  -45.443291  17.387896  0
-63.024517  -35.319408  14.308650  0
-60.727425  -51.626038  31.473724  0
-58.018925  -46.241623  24.390455  0
-51.393227  -41.732212  20.023869  0
-57.794392  -41.749840  32.118324  0
-49.772888  -41.419651  26.179037  0
-58.500465  -36.043472  28.615288  0
-15.264072  -67.129433  29.585342  0
-15.489329  -63.906231  25.336393  0
-11.598805  -62.839310  18.708685  0
-4.343959  -61.722359  10.117327  0
-3.671410  -50.909088  8.516912  0
-2.668405  -44.725655  8.482418  0
-3.167776  -35.070133  5.966504  0
-21.207483  -81.178978  -8.628745  0
-13.074045  -89.167931  -11.123128  0
-5.744011  -94.880768  -6.670745  0
-9.753953  -89.716461  5.326262  0
-2.531822  -82.153023  14.830273  0
-4.420669  -76.367813  24.267639  0
-13.376385  -76.661156  26.488026  0
-18.619381  -78.500542  -11.968235  0
-5.204646  -85.038109  -9.266487  0
-9.445233  -85.500511  1.969651  0
-8.991067  -79.615005  10.230757  0
-6.920744  -68.200096  14.641631  0
-16.571949  -73.736908  20.030420  0
-9.602552  -73.380730  -10.710171  0
-1.365224  -76.437637  2.081772  0
-14.145802  -77.892769  6.231816  0
-15.463540  -69.969635  5.851659  0
-20.018515  -66.544891  17.934067  0
-7.482010  -66.176659  -2.527430  0
-13.321631  -68.287254  3.786349  0
-22.720257  -68.847183  4.914631  0
-18.267710  -62.151131  13.184206  0
-15.644346  -57.387413  0.762041  0
-24.274782  -60.193718  2.851546  0
-16.307285  -59.381020  7.050580  0
-17.074184  -50.999012  -1.163097  0
-10.954805  -53.287659  2.788088  0
-8.360797  -42.487511  3.246731  0
-30.964886  -78.099976  -13.155861  0
-35.588226  -82.019699  -17.948399  0
-42.314709  -87.415230  -12.352060  0
-42.729431  -87.495407  -3.385849  0
-44.187332  -84.417526  6.904839  0
-45.985958  -77.439194  14.509116  0
-42.874668  -72.250954  22.409525  0
-21.705317  -86.488602  -13.233958  0
-26.547852  -91.832397  -17.637762  0
-30.473766  -94.908447  -7.824141  0
-31.306286  -86.233620  -0.386541  0
-36.620804  -81.057526  9.022388  0
-45.043068  -81.044960  21.830990  0
-12.387635  -96.040367  -14.789636  0
-20.371136  -101.827141  -10.529935  0
-24.998837  -98.007233  1.834244  0
-29.477076  -91.203110  6.742472  0
-36.811630  -89.365288  15.531281  0
-13.486605  -96.040894  -0.796520  0
-10.398733  -104.429428  4.253765  0
-22.944073  -99.397659  14.891274  0
-26.869852  -86.898926  14.622610  0
-3.081445  -95.814316  12.503262  0
-11.165426  -95.949219  16.198942  0
-18.013266  -91.009583  19.220045  0
-5.619039  -86.507446  22.894175  0
-11.270548  -90.771454  30.200636  0
-5.084499  -83.394043  35.137810  0
-43.354675  -72.229179  -18.000639  0
-42.300499  -58.923241  -9.634343  0
-50.753197  -58.030403  -16.038643  0
-57.403236  -48.552200  -14.556858  0
-65.443352  -40.053665  -11.363302  0
-55.434097  -34.094017  -7.924534  0
-43.022285  -73.972122  -11.449457  0
-44.026478  -63.338593  -7.156542  0
-56.169220  -59.862659  -9.153212  0
-60.660107  -49.855759  -6.559174  0
-60.339645  -41.617924  -2.512496  0
-44.942917  -74.347198  -5.349396  0
-46.985516  -66.790886  -2.782495  0
-55.484619  -62.982697  -1.019088  0
-63.167824  -53.914829  5.368990  0
-42.549259  -75.498337  1.857410  0
-42.591900  -64.539490  4.188166  0
-55.111313  -65.777161  7.614446  0
-48.622932  -71.494217  9.717081  0
-44.679161  -65.232033  11.501350  0
-41.625542  -69.089478  15.728886  0
-2.827567  -27.978632  13.152106  0
0.099766  -22.838560  18.542452  0
0.507964  -16.765240  27.472708  0
-3.211907  -10.106236  31.247406  0
-1.282643  -6.752036  38.449978  0
-8.542006  -6.418267  42.458633  0
-10.288234  -7.916086  45.248501  0
-8.242139  45.490246  6.315526  0
-2.292331  42.050152  6.765924  0
1.240737  30.222420  8.652370  0
0.165677  13.453930  10.811003  0
-0.272132  -4.100324  10.835061  0
-1.936036  -15.885917  12.243366  0
-12.122087  40.340179  15.160249  0
-1.986762  34.676929  17.525763  0
-0.876504  22.390186  18.977833  0
0.358441  5.949441  19.749241  0
0.553186  -9.408123  19.513416  0
-11.384639  32.092712  23.794245  0
-2.520100  25.334637  26.563393  0
-2.340755  12.527933  26.181396  0
0.288546  -2.169691  29.306957  0
-11.556160  21.516472  31.995590  0
-4.543934  15.444865  34.205349  0
-2.205746  2.909487  31.515186  0
-9.319778  12.372997  38.910599  0
-5.544291  4.246466  39.817917  0
-8.971407  1.648411  42.545425  0
-1.947255  -69.061417  29.814892  0
-9.502931  -55.004742  33.633827  0
-12.848793  -45.533348  36.439659  0
-9.207656  -34.882637  44.009651  0
-13.828728  -25.751202  38.695930  0
-12.368410  -16.100533  41.586964  0
-1.905106  -61.773552  25.894855  0
-11.419386  -49.771225  31.343616  0
-4.387370  -37.270782  36.198555  0
-3.353187  -27.324532  43.001675  0
-6.793727  -16.379890  41.833626  0
-6.751678  -54.948463  22.316925  0
-1.330479  -44.056301  30.286762  0
-2.267305  -30.357187  28.620663  0
-0.871343  -18.521454  33.123466  0
-2.248036  -47.022446  18.760513  0
-5.663150  -37.330311  26.384949  0
-4.558504  -23.851048  29.005322  0
-2.036503  -43.458046  19.166168  0
0.799227  -31.189466  24.635509  0
1.231898  -35.029419  13.973343  0
26 0 12 0
33 26 12 0
26 33 27 0
34 27 33 0
27 34 28 0
35 28 34 0
28 35 29 0
36 29 35 0
29 36 30 0
37 30 36 0
30 37 31 0
38 31 37 0
31 38 32 0
19 32 38 0
19 6 32 0
33 12 13 0
39 33 13 0
33 39 34 0
40 34 39 0
34 40 35 0
41 35 40 0
35 41 36 0
42 36 41 0
36 42 37 0
43 37 42 0
37 43 38 0
20 38 43 0
20 19 38 0
39 13 14 0
44 39 14 0
39 44 40 0
45 40 44 0
40 45 41 0
46 41 45 0
41 46 42 0
47 42 46 0
42 47 43 0
21 43 47 0
21 20 43 0
44 14 15 0
48 44 15 0
44 48 45 0
49 45 48 0
45 49 46 0
50 46 49 0
46 50 47 0
22 47 50 0
22 21 47 0
48 15 16 0
51 48 16 0
48 51 49 0
52 49 51 0
49 52 50 0
23 50 52 0
23 22 50 0
51 16 17 0
53 51 17 0
51 53 52 0
24 52 53 0
24 23 52 0
53 17 18 0
25 53 18 0
25 24 53 0
18 4 25 0
12 0 54 0
68 12 54 0
12 68 13 0
69 13 68 0
13 69 14 0
70 14 69 0
14 70 15 0
71 15 70 0
15 71 16 0
72 16 71 0
16 72 17 0
73 17 72 0
17 73 18 0
61 18 73 0
61 4 18 0
68 54 55 0
74 68 55 0
68 74 69 0
75 69 74 0
69 75 70 0
76 70 75 0
70 76 71 0
77 71 76 0
71 77 72 0
78 72 77 0
72 78 73 0
62 73 78 0
62 61 73 0
74 55 56 0
79 74 56 0
74 79 75 0
80 75 79 0
75 80 76 0
81 76 80 0
76 81 77 0
82 77 81 0
77 82 78 0
63 78 82 0
63 62 78 0
79 56 57 0
83 79 57 0
79 83 80 0
84 80 83 0
80 84 81 0
85 81 84 0
81 85 82 0
64 82 85 0
64 63 82 0
83 57 58 0
86 83 58 0
83 86 84 0
87 84 86 0
84 87 85 0
65 85 87 0
65 64 85 0
86 58 59 0
88 86 59 0
86 88 87 0
66 87 88 0
66 65 87 0
88 59 60 0
67 88 60 0
67 66 88 0
60 9 67 0
54 0 89 0
103 54 89 0
54 103 55 0
104 55 103 0
55 104 56 0
105 56 104 0
56 105 57 0
106 57 105 0
57 106 58 0
107 58 106 0
58 107 59 0
108 59 107 0
59 108 60 0
96 60 108 0
96 9 60 0
103 89 90 0
109 103 90 0
103 109 104 0
110 104 109 0
104 110 105 0
111 105 110 0
105 111 106 0
112 106 111 0
106 112 107 0
113 107 112 0
107 113 108 0
97 108 113 0
97 96 108 0
109 90 91 0
114 109 91 0
109 114 110 0
115 110 114 0
110 115 111 0
116 111 115 0
111 116 112 0
117 112 116 0
112 117 113 0
98 113 117 0
98 97 113 0
114 91 92 0
118 114 92 0
114 118 115 0
119 115 118 0
115 119 116 0
120 116 119 0
116 120 117 0
99 117 120 0
99 98 117 0
118 92 93 0
121 118 93 0
118 121 119 0
122 119 121 0
119 122 120 0
100 120 122 0
100 99 120 0
121 93 94 0
123 121 94 0
121 123 122 0
101 122 123 0
101 100 122 0
123 94 95 0
102 123 95 0
102 101 123 0
95 3 102 0
89 0 124 0
138 89 124 0
89 138 90 0
139 90 138 0
90 139 91 0
140 91 139 0
91 140 92 0
141 92 140 0
92 141 93 0
142 93 141 0
93 142 94 0
143 94 142 0
94 143 95 0
131 95 143 0
131 3 95 0
138 124 125 0
144 138 125 0
138 144 139 0
145 139 144 0
139 145 140 0
146 140 145 0
140 146 141 0
147 141 146 0
141 147 142 0
148 142 147 0
142 148 143 0
132 143 148 0
132 131 143 0
144 125 126 0
149 144 126 0
144 149 145 0
150 145 149 0
145 150 146 0
151 146 150 0
146 151 147 0
152 147 151 0
147 152 148 0
133 148 152 0
133 132 148 0
149 126 127 0
153 149 127 0
149 153 150 0
154 150 153 0
150 154 151 0
155 151 154 0
151 155 152 0
134 152 155 0
134 133 152 0
153 127 128 0
156 153 128 0
153 156 154 0
157 154 156 0
154 157 155 0
135 155 157 0
135 134 155 0
156 128 129 0
158 156 129 0
156 158 157 0
136 157 158 0
136 135 157 0
158 129 130 0
137 158 130 0
137 136 158 0
130 11 137 0
124 0 26 0
166 124 26 0
124 166 125 0
167 125 166 0
125 167 126 0
168 126 167 0
126 168 127 0
169 127 168 0
127 169 128 0
170 128 169 0
128 170 129 0
171 129 170 0
129 171 130 0
159 130 171 0
159 11 130 0
166 26 27 0
172 166 27 0
166 172 167 0
173 167 172 0
167 173 168 0
174 168 173 0
168 174 169 0
175 169 174 0
169 175 170 0
176 170 175 0
170 176 171 0
160 171 176 0
160 159 171 0
172 27 28 0
177 172 28 0
172 177 173 0
178 173 177 0
173 178 174 0
179 174 178 0
174 179 175 0
180 175 179 0
175 180 176 0
161 176 180 0
161 160 176 0
177 28 29 0
181 177 29 0
177 181 178 0
182 178 181 0
178 182 179 0
183 179 182 0
179 183 180 0
162 180 183 0
162 161 180 0
181 29 30 0
184 181 30 0
181 184 182 0
185 182 184 0
182 185 183 0
163 183 185 0
163 162 183 0
184 30 31 0
186 184 31 0
184 186 185 0
164 185 186 0
164 163 185 0
186 31 32 0
165 186 32 0
165 164 186 0
32 6 165 0
194 1 187 0
201 194 187 0
194 201 195 0
202 195 201 0
195 202 196 0
203 196 202 0
196 203 197 0
204 197 203 0
197 204 198 0
205 198 204 0
198 205 199 0
206 199 205 0
199 206 200 0
25 200 206 0
25 4 200 0
201 187 188 0
207 201 188 0
201 207 202 0
208 202 207 0
202 208 203 0
209 203 208 0
203 209 204 0
210 204 209 0
204 210 205 0
211 205 210 0
205 211 206 0
24 206 211 0
24 25 206 0
207 188 189 0
212 207 189 0
207 212 208 0
213 208 212 0
208 213 209 0
214 209 213 0
209 214 210 0
215 210 214 0
210 215 211 0
23 211 215 0
23 24 211 0
212 189 190 0
216 212 190 0
212 216 213 0
217 213 216 0
213 217 214 0
218 214 217 0
214 218 215 0
22 215 218 0
22 23 215 0
216 190 191 0
219 216 191 0
216 219 217 0
220 217 219 0
217 220 218 0
21 218 220 0
21 22 218 0
219 191 192 0
221 219 192 0
219 221 220 0
20 220 221 0
20 21 220 0
221 192 193 0
19 221 193 0
19 20 221 0
193 6 19 0
187 1 222 0
236 187 222 0
187 236 188 0
237 188 236 0
188 237 189 0
238 189 237 0
189 238 190 0
239 190 238 0
190 239 191 0
240 191 239 0
191 240 192 0
241 192 240 0
192 241 193 0
229 193 241 0
229 6 193 0
236 222 223 0
242 236 223 0
236 242 237 0
243 237 242 0
237 243 238 0
244 238 243 0
238 244 239 0
245 239 244 0
239 245 240 0
246 240 245 0
240 246 241 0
230 241 246 0
230 229 241 0
242 223 224 0
247 242 224 0
242 247 243 0
248 243 247 0
243 248 244 0
249 244 248 0
244 249 245 0
250 245 249 0
245 250 246 0
231 246 250 0
231 230 246 0
247 224 225 0
251 247 225 0
247 251 248 0
252 248 251 0
248 252 249 0
253 249 252 0
249 253 250 0
232 250 253 0
232 231 250 0
251 225 226 0
254 251 226 0
251 254 252 0
255 252 254 0
252 255 253 0
233 253 255 0
233 232 253 0
254 226 227 0
256 254 227 0
254 256 255 0
234 255 256 0
234 233 255 0
256 227 228 0
235 256 228 0
235 234 256 0
228 8 235 0
222 1 257 0
271 222 257 0
222 271 223 0
272 223 271 0
223 272 224 0
273 224 272 0
224 273 225 0
274 225 273 0
225 274 226 0
275 226 274 0
226 275 227 0
276 227 275 0
227 276 228 0
264 228 276 0
264 8 228 0
271 257 258 0
277 271 258 0
271 277 272 0
278 272 277 0
272 278 273 0
279 273 278 0
273 279 274 0
280 274 279 0
274 280 275 0
281 275 280 0
275 281 276 0
265 276 281 0
265 264 276 0
277 258 259 0
282 277 259 0
277 282 278 0
283 278 282 0
278 283 279 0
284 279 283 0
279 284 280 0
285 280 284 0
280 285 281 0
266 281 285 0
266 265 281 0
282 259 260 0
286 282 260 0
282 286 283 0
287 283 286 0
283 287 284 0
288 284 287 0
284 288 285 0
267 285 288 0
267 266 285 0
286 260 261 0
289 286 261 0
286 289 287 0
290 287 289 0
287 290 288 0
268 288 290 0
268 267 288 0
289 261 262 0
291 289 262 0
289 291 290 0
269 290 291 0
269 268 290 0
291 262 263 0
270 291 263 0
270 269 291 0
263 2 270 0
257 1 292 0
306 257 292 0
257 306 258 0
307 258 306 0
258 307 259 0
308 259 307 0
259 308 260 0
309 260 308 0
260 309 261 0
310 261 309 0
261 310 262 0
311 262 310 0
262 311 263 0
299 263 311 0
299 2 263 0
306 292 293 0
312 306 293 0
306 312 307 0
313 307 312 0
307 313 308 0
314 308 313 0
308 314 309 0
315 309 314 0
309 315 310 0
316 310 315 0
310 316 311 0
300 311 316 0
300 299 311 0
312 293 294 0
317 312 294 0
312 317 313 0
318 313 317 0
313 318 314 0
319 314 318 0
314 319 315 0
320 315 319 0
315 320 316 0
301 316 320 0
301 300 316 0
317 294 295 0
321 317 295 0
317 321 318 0
322 318 321 0
318 322 319 0
323 319 322 0
319 323 320 0
302 320 323 0
302 301 320 0
321 295 296 0
324 321 296 0
321 324 322 0
325 322 324 0
322 325 323 0
303 323 325 0
303 302 323 0
324 296 297 0
326 324 297 0
324 326 325 0
304 325 326 0
304 303 325 0
326 297 298 0
305 326 298 0
305 304 326 0
298 10 305 0
292 1 194 0
334 292 194 0
292 334 293 0
335 293 334 0
293 335 294 0
336 294 335 0
294 336 295 0
337 295 336 0
295 337 296 0
338 296 337 0
296 338 297 0
339 297 338 0
297 339 298 0
327 298 339 0
327 10 298 0
334 194 195 0
340 334 195 0
334 340 335 0
341 335 340 0
335 341 336 0
342 336 341 0
336 342 337 0
343 337 342 0
337 343 338 0
344 338 343 0
338 344 339 0
328 339 344 0
328 327 339 0
340 195 196 0
345 340 196 0
340 345 341 0
346 341 345 0
341 346 342 0
347 342 346 0
342 347 343 0
348 343 347 0
343 348 344 0
329 344 348 0
329 328 344 0
345 196 197 0
349 345 197 0
345 349 346 0
350 346 349 0
346 350 347 0
351 347 350 0
347 351 348 0
330 348 351 0
330 329 348 0
349 197 198 0
352 349 198 0
349 352 350 0
353 350 352 0
350 353 351 0
331 351 353 0
331 330 351 0
352 198 199 0
354 352 199 0
352 354 353 0
332 353 354 0
332 331 353 0
354 199 200 0
333 354 200 0
333 332 354 0
200 4 333 0
270 2 355 0
369 270 355 0
270 369 269 0
370 269 369 0
269 370 268 0
371 268 370 0
268 371 267 0
372 267 371 0
267 372 266 0
373 266 372 0
266 373 265 0
374 265 373 0
265 374 264 0
362 264 374 0
362 8 264 0
369 355 356 0
375 369 356 0
369 375 370 0
376 370 375 0
370 376 371 0
377 371 376 0
371 377 372 0
378 372 377 0
372 378 373 0
379 373 378 0
373 379 374 0
363 374 379 0
363 362 374 0
375 356 357 0
380 375 357 0
375 380 376 0
381 376 380 0
376 381 377 0
382 377 381 0
377 382 378 0
383 378 382 0
378 383 379 0
364 379 383 0
364 363 379 0
380 357 358 0
384 380 358 0
380 384 381 0
385 381 384 0
381 385 382 0
386 382 385 0
382 386 383 0
365 383 386 0
365 364 383 0
384 358 359 0
387 384 359 0
384 387 385 0
388 385 387 0
385 388 386 0
366 386 388 0
366 365 386 0
387 359 360 0
389 387 360 0
387 389 388 0
367 388 389 0
367 366 388 0
389 360 361 0
368 389 361 0
368 367 389 0
361 7 368 0
355 2 390 0
404 355 390 0
355 404 356 0
405 356 404 0
356 405 357 0
406 357 405 0
357 406 358 0
407 358 406 0
358 407 359 0
408 359 407 0
359 408 360 0
409 360 408 0
360 409 361 0
397 361 409 0
397 7 361 0
404 390 391 0
410 404 391 0
404 410 405 0
411 405 410 0
405 411 406 0
412 406 411 0
406 412 407 0
413 407 412 0
407 413 408 0
414 408 413 0
408 414 409 0
398 409 414 0
398 397 409 0
410 391 392 0
415 410 392 0
410 415 411 0
416 411 415 0
411 416 412 0
417 412 416 0
412 417 413 0
418 413 417 0
413 418 414 0
399 414 418 0
399 398 414 0
415 392 393 0
419 415 393 0
415 419 416 0
420 416 419 0
416 420 417 0
421 417 420 0
417 421 418 0
400 418 421 0
400 399 418 0
419 393 394 0
422 419 394 0
419 422 420 0
423 420 422 0
420 423 421 0
401 421 423 0
401 400 421 0
422 394 395 0
424 422 395 0
422 424 423 0
402 423 424 0
402 401 423 0
424 395 396 0
403 424 396 0
403 402 424 0
396 5 403 0
390 2 299 0
432 390 299 0
390 432 391 0
433 391 432 0
391 433 392 0
434 392 433 0
392 434 393 0
435 393 434 0
393 435 394 0
436 394 435 0
394 436 395 0
437 395 436 0
395 437 396 0
425 396 437 0
425 5 396 0
432 299 300 0
438 432 300 0
432 438 433 0
439 433 438 0
433 439 434 0
440 434 439 0
434 440 435 0
441 435 440 0
435 441 436 0
442 436 441 0
436 442 437 0
426 437 442 0
426 425 437 0
438 300 301 0
443 438 301 0
438 443 439 0
444 439 443 0
439 444 440 0
445 440 444 0
440 445 441 0
446 441 445 0
441 446 442 0
427 442 446 0
427 426 442 0
443 301 302 0
447 443 302 0
443 447 444 0
448 444 447 0
444 448 445 0
449 445 448 0
445 449 446 0
428 446 449 0
428 427 446 0
447 302 303 0
450 447 303 0
447 450 448 0
451 448 450 0
448 451 449 0
429 449 451 0
429 428 449 0
450 303 304 0
452 450 304 0
450 452 451 0
430 451 452 0
430 429 451 0
452 304 305 0
431 452 305 0
431 430 452 0
305 10 431 0
333 4 61 0
460 333 61 0
333 460 332 0
461 332 460 0
332 461 331 0
462 331 461 0
331 462 330 0
463 330 462 0
330 463 329 0
464 329 463 0
329 464 328 0
465 328 464 0
328 465 327 0
453 327 465 0
453 10 327 0
460 61 62 0
466 460 62 0
460 466 461 0
467 461 466 0
461 467 462 0
468 462 467 0
462 468 463 0
469 463 468 0
463 469 464 0
470 464 469 0
464 470 465 0
454 465 470 0
454 453 465 0
466 62 63 0
471 466 63 0
466 471 467 0
472 467 471 0
467 472 468 0
473 468 472 0
468 473 469 0
474 469 473 0
469 474 470 0
455 470 474 0
455 454 470 0
471 63 64 0
475 471 64 0
471 475 472 0
476 472 475 0
472 476 473 0
477 473 476 0
473 477 474 0
456 474 477 0
456 455 474 0
475 64 65 0
478 475 65 0
475 478 476 0
479 476 478 0
476 479 477 0
457 477 479 0
457 456 477 0
478 65 66 0
480 478 66 0
478 480 479 0
458 479 480 0
458 457 479 0
480 66 67 0
459 480 67 0
459 458 480 0
67 9 459 0
481 5 425 0
488 481 425 0
481 488 482 0
489 482 488 0
482 489 483 0
490 483 489 0
483 490 484 0
491 484 490 0
484 491 485 0
492 485 491 0
485 492 486 0
493 486 492 0
486 493 487 0
459 487 493 0
459 9 487 0
488 425 426 0
494 488 426 0
488 494 489 0
495 489 494 0
489 495 490 0
496 490 495 0
490 496 491 0
497 491 496 0
491 497 492 0
498 492 497 0
492 498 493 0
458 493 498 0
458 459 493 0
494 426 427 0
499 494 427 0
494 499 495 0
500 495 499 0
495 500 496 0
501 496 500 0
496 501 497 0
502 497 501 0
497 502 498 0
457 498 502 0
457 458 498 0
499 427 428 0
503 499 428 0
499 503 500 0
504 500 503 0
500 504 501 0
505 501 504 0
501 505 502 0
456 502 505 0
456 457 502 0
503 428 429 0
506 503 429 0
503 506 504 0
507 504 506 0
504 507 505 0
455 505 507 0
455 456 505 0
506 429 430 0
508 506 430 0
506 508 507 0
454 507 508 0
454 455 507 0
508 430 431 0
453 508 431 0
453 454 508 0
431 10 453 0
516 3 131 0
523 516 131 0
516 523 517 0
524 517 523 0
517 524 518 0
525 518 524 0
518 525 519 0
526 519 525 0
519 526 520 0
527 520 526 0
520 527 521 0
528 521 527 0
521 528 522 0
509 522 528 0
509 7 522 0
523 131 132 0
529 523 132 0
523 529 524 0
530 524 529 0
524 530 525 0
531 525 530 0
525 531 526 0
532 526 531 0
526 532 527 0
533 527 532 0
527 533 528 0
510 528 533 0
510 509 528 0
529 132 133 0
534 529 133 0
529 534 530 0
535 530 534 0
530 535 531 0
536 531 535 0
531 536 532 0
537 532 536 0
532 537 533 0
511 533 537 0
511 510 533 0
534 133 134 0
538 534 134 0
534 538 535 0
539 535 538 0
535 539 536 0
540 536 539 0
536 540 537 0
512 537 540 0
512 511 537 0
538 134 135 0
541 538 135 0
538 541 539 0
542 539 541 0
539 542 540 0
513 540 542 0
513 512 540 0
541 135 136 0
543 541 136 0
541 543 542 0
514 542 543 0
514 513 542 0
543 136 137 0
515 543 137 0
515 514 543 0
137 11 515 0
544 3 516 0
551 544 516 0
544 551 545 0
552 545 551 0
545 552 546 0
553 546 552 0
546 553 547 0
554 547 553 0
547 554 548 0
555 548 554 0
548 555 549 0
556 549 555 0
549 556 550 0
403 550 556 0
403 5 550 0
551 516 517 0
557 551 517 0
551 557 552 0
558 552 557 0
552 558 553 0
559 553 558 0
553 559 554 0
560 554 559 0
554 560 555 0
561 555 560 0
555 561 556 0
402 556 561 0
402 403 556 0
557 517 518 0
562 557 518 0
557 562 558 0
563 558 562 0
558 563 559 0
564 559 563 0
559 564 560 0
565 560 564 0
560 565 561 0
401 561 565 0
401 402 561 0
562 518 519 0
566 562 519 0
562 566 563 0
567 563 566 0
563 567 564 0
568 564 567 0
564 568 565 0
400 565 568 0
400 401 565 0
566 519 520 0
569 566 520 0
566 569 567 0
570 567 569 0
567 570 568 0
399 568 570 0
399 400 568 0
569 520 521 0
571 569 521 0
569 571 570 0
398 570 571 0
398 399 570 0
571 521 522 0
397 571 522 0
397 398 571 0
522 7 397 0
102 3 544 0
572 102 544 0
102 572 101 0
573 101 572 0
101 573 100 0
574 100 573 0
100 574 99 0
575 99 574 0
99 575 98 0
576 98 575 0
98 576 97 0
577 97 576 0
97 577 96 0
487 96 577 0
487 9 96 0
572 544 545 0
578 572 545 0
572 578 573 0
579 573 578 0
573 579 574 0
580 574 579 0
574 580 575 0
581 575 580 0
575 581 576 0
582 576 581 0
576 582 577 0
486 577 582 0
486 487 577 0
578 545 546 0
583 578 546 0
578 583 579 0
584 579 583 0
579 584 580 0
585 580 584 0
580 585 581 0
586 581 585 0
581 586 582 0
485 582 586 0
485 486 582 0
583 546 547 0
587 583 547 0
583 587 584 0
588 584 587 0
584 588 585 0
589 585 588 0
585 589 586 0
484 586 589 0
484 485 586 0
587 547 548 0
590 587 548 0
587 590 588 0
591 588 590 0
588 591 589 0
483 589 591 0
483 484 589 0
590 548 549 0
592 590 549 0
590 592 591 0
482 591 592 0
482 483 591 0
592 549 550 0
481 592 550 0
481 482 592 0
550 5 481 0
165 6 229 0
600 165 229 0
165 600 164 0
601 164 600 0
164 601 163 0
602 163 601 0
163 602 162 0
603 162 602 0
162 603 161 0
604 161 603 0
161 604 160 0
605 160 604 0
160 605 159 0
593 159 605 0
593 11 159 0
600 229 230 0
606 600 230 0
600 606 601 0
607 601 606 0
601 607 602 0
608 602 607 0
602 608 603 0
609 603 608 0
603 609 604 0
610 604 609 0
604 610 605 0
594 605 610 0
594 593 605 0
606 230 231 0
611 606 231 0
606 611 607 0
612 607 611 0
607 612 608 0
613 608 612 0
608 613 609 0
614 609 613 0
609 614 610 0
595 610 614 0
595 594 610 0
611 231 232 0
615 611 232 0
611 615 612 0
616 612 615 0
612 616 613 0
617 613 616 0
613 617 614 0
596 614 617 0
596 595 614 0
615 232 233 0
618 615 233 0
615 618 616 0
619 616 618 0
616 619 617 0
597 617 619 0
597 596 617 0
618 233 234 0
620 618 234 0
618 620 619 0
598 619 620 0
598 597 619 0
620 234 235 0
599 620 235 0
599 598 620 0
235 8 599 0
368 7 509 0
621 368 509 0
368 621 367 0
622 367 621 0
367 622 366 0
623 366 622 0
366 623 365 0
624 365 623 0
365 624 364 0
625 364 624 0
364 625 363 0
626 363 625 0
363 626 362 0
599 362 626 0
599 8 362 0
621 509 510 0
627 621 510 0
621 627 622 0
628 622 627 0
622 628 623 0
629 623 628 0
623 629 624 0
630 624 629 0
624 630 625 0
631 625 630 0
625 631 626 0
598 626 631 0
598 599 626 0
627 510 511 0
632 627 511 0
627 632 628 0
633 628 632 0
628 633 629 0
634 629 633 0
629 634 630 0
635 630 634 0
630 635 631 0
597 631 635 0
597 598 631 0
632 511 512 0
636 632 512 0
632 636 633 0
637 633 636 0
633 637 634 0
638 634 637 0
634 638 635 0
596 635 638 0
596 597 635 0
636 512 513 0
639 636 513 0
636 639 637 0
640 637 639 0
637 640 638 0
595 638 640 0
595 596 638 0
639 513 514 0
641 639 514 0
639 641 640 0
594 640 641 0
594 595 640 0
641 514 515 0
593 641 515 0
593 594 641 0
515 11 593 0
